0.0379 0.1970 0.4492 132 113 106
-0.0960 0.1981 0.4499 121 103 91
0.0380 0.1976 0.4496 131 112 105
-0.0968 0.1997 0.4499 135 118 110
-0.0965 0.2006 0.4497 128 110 100
-0.0959 0.2010 0.4491 126 106 97
-0.0962 0.2018 0.4494 126 108 98
-0.0967 0.2035 0.4497 127 109 99
-0.0959 0.2026 0.4489 127 107 98
-0.0968 0.2040 0.4498 131 114 104
-0.0957 0.2043 0.4488 124 106 96
-0.0957 0.2058 0.4494 126 108 98
-0.0957 0.2069 0.4500 123 106 96
-0.0944 0.2083 0.4496 125 107 95
-0.0935 0.2085 0.4491 126 109 99
-0.0941 0.2090 0.4497 129 111 97
-0.0931 0.2094 0.4492 128 110 97
0.0329 0.2109 0.4489 133 114 100
-0.0929 0.2124 0.4492 127 109 99
0.0329 0.2122 0.4494 130 111 97
-0.0925 0.2125 0.4488 126 106 97
-0.0923 0.2132 0.4490 129 113 100
0.0329 0.2128 0.4497 131 112 98
-0.0918 0.2145 0.4492 131 110 96
0.0322 0.2144 0.4490 131 112 96
-0.0916 0.2151 0.4494 133 111 97
-0.0903 0.2160 0.4490 132 110 96
0.0320 0.2165 0.4497 132 113 99
0.0294 0.2228 0.4494 139 119 112
0.0286 0.2260 0.4495 160 148 136
-0.0827 0.2279 0.4495 140 118 105
0.0270 0.2297 0.4492 159 156 149
0.0269 0.2301 0.4494 155 149 141
0.0235 0.2336 0.4493 144 124 115
0.0240 0.2330 0.4494 150 132 122
0.0252 0.2326 0.4500 150 130 121
-0.0793 0.2385 0.4499 138 122 109
-0.0784 0.2404 0.4493 151 138 130
-0.0517 0.2628 0.4499 159 135 125
-0.0508 0.2627 0.4492 152 128 118
-0.0496 0.2633 0.4492 169 153 141
-0.0495 0.2638 0.4496 184 180 171
-0.0477 0.2639 0.4490 152 128 118
-0.0461 0.2645 0.4490 160 132 127
-0.0469 0.2654 0.4498 164 141 133
-0.0459 0.2656 0.4495 175 163 155
-0.0444 0.2656 0.4488 173 164 157
-0.0446 0.2667 0.4494 185 189 184
-0.0442 0.2683 0.4497 200 212 210
-0.0445 0.2690 0.4499 209 225 224
-0.0443 0.2703 0.4492 217 226 225
-0.0321 0.2704 0.4495 206 210 201
-0.0450 0.2716 0.4498 218 222 221
-0.0319 0.2720 0.4495 228 239 230
-0.0460 0.2734 0.4499 215 219 218
-0.0371 0.2729 0.4492 231 239 231
-0.0465 0.2742 0.4495 213 219 217
-0.1248 -0.0413 0.4505 24 29 23
-0.1234 -0.0413 0.4506 25 29 28
-0.1414 -0.0400 0.4506 50 52 47
-0.1267 -0.0405 0.4503 32 31 32
-0.1256 -0.0409 0.4506 24 26 25
-0.1244 -0.0408 0.4510 23 28 26
-0.1460 -0.0388 0.4502 48 50 45
-0.1425 -0.0398 0.4512 36 35 33
-0.1397 -0.0395 0.4511 32 31 26
-0.1376 -0.0391 0.4509 34 30 29
-0.1364 -0.0389 0.4501 36 32 29
-0.1269 -0.0395 0.4506 22 20 21
-0.1232 -0.0394 0.4512 26 30 29
-0.1220 -0.0396 0.4507 31 29 25
-0.1209 -0.0393 0.4502 27 29 26
-0.1488 -0.0375 0.4501 47 47 47
-0.1466 -0.0385 0.4507 53 53 53
-0.1459 -0.0386 0.4512 54 54 52
-0.1367 -0.0386 0.4508 40 39 34
-0.1353 -0.0381 0.4505 34 35 29
-0.1208 -0.0382 0.4507 24 27 23
-0.1509 -0.0363 0.4507 90 90 88
-0.1493 -0.0371 0.4509 60 61 58
-0.1344 -0.0369 0.4510 27 28 23
-0.1332 -0.0368 0.4503 27 32 29
-0.1317 -0.0369 0.4501 27 27 27
-0.1303 -0.0370 0.4502 30 30 30
-0.1294 -0.0370 0.4505 31 31 31
-0.1205 -0.0373 0.4510 27 31 26
-0.1194 -0.0369 0.4505 26 31 29
-0.1187 -0.0367 0.4503 28 28 26
-0.1178 -0.0357 0.4503 34 36 35
-0.1538 -0.0340 0.4507 59 59 59
-0.1527 -0.0350 0.4503 74 74 74
-0.1165 -0.0348 0.4502 20 26 26
-0.1550 -0.0328 0.4505 77 79 76
-0.1164 -0.0332 0.4511 27 27 29
-0.1159 -0.0329 0.4510 30 30 32
-0.1148 -0.0328 0.4505 20 21 23
-0.1151 -0.0322 0.4510 29 29 31
-0.1143 -0.0320 0.4507 26 27 27
-0.1131 -0.0319 0.4501 30 29 27
-0.1620 -0.0288 0.4503 63 65 62
-0.1608 -0.0290 0.4502 86 87 87
-0.1595 -0.0291 0.4507 90 91 95
-0.1581 -0.0293 0.4511 96 95 100
-0.1103 -0.0297 0.4501 18 19 23
-0.1666 -0.0280 0.4503 50 54 52
-0.1631 -0.0286 0.4508 69 73 74
-0.1624 -0.0287 0.4506 96 100 101
-0.1102 -0.0284 0.4511 21 19 20
-0.1100 -0.0287 0.4508 21 21 23
-0.1081 -0.0279 0.4507 27 28 28
-0.0873 -0.0279 0.4501 33 28 31
-0.0861 -0.0279 0.4511 33 32 37
-0.0830 -0.0284 0.4509 25 28 33
-0.0797 -0.0279 0.4510 32 29 32
-0.0150 -0.0277 0.4501 38 28 39
-0.0113 -0.0276 0.4500 28 25 34
0.0072 -0.0276 0.4508 28 28 30
0.0080 -0.0281 0.4510 28 28 30
0.0269 -0.0277 0.4509 32 29 29
0.0278 -0.0276 0.4502 29 25 27
0.0295 -0.0276 0.4502 28 28 30
0.0358 -0.0281 0.4509 31 27 31
-0.1083 -0.0275 0.4511 27 31 30
-0.1059 -0.0266 0.4508 32 33 34
-0.0892 -0.0265 0.4506 31 31 33
-0.0884 -0.0270 0.4505 27 25 31
-0.0141 -0.0274 0.4507 31 24 35
-0.0113 -0.0274 0.4508 25 22 31
-0.0093 -0.0274 0.4502 31 23 36
-0.0080 -0.0269 0.4504 29 23 32
-0.0075 -0.0269 0.4502 25 20 26
0.0050 -0.0267 0.4502 25 25 27
0.0065 -0.0275 0.4502 29 30 34
-0.1702 -0.0259 0.4503 52 58 56
-0.1054 -0.0258 0.4511 26 28 27
-0.1036 -0.0255 0.4504 25 27 26
-0.0925 -0.0255 0.4507 23 27 28
-0.0900 -0.0261 0.4509 27 27 27
-0.0782 -0.0257 0.4505 23 25 24
-0.0320 -0.0251 0.4505 25 26 30
-0.0053 -0.0259 0.4505 20 18 23
-0.0035 -0.0256 0.4503 32 27 34
-0.0025 -0.0255 0.4501 33 28 34
0.0008 -0.0252 0.4508 23 26 29
-0.1726 -0.0241 0.4504 49 55 51
-0.1720 -0.0245 0.4507 64 68 65
-0.1018 -0.0243 0.4505 29 29 32
-0.1006 -0.0240 0.4501 26 27 31
-0.0955 -0.0242 0.4503 31 28 35
-0.0780 -0.0243 0.4504 34 33 28
-0.0371 -0.0239 0.4503 34 29 33
-0.0325 -0.0249 0.4511 18 16 19
-0.0308 -0.0243 0.4508 22 23 27
-0.0291 -0.0239 0.4511 31 30 35
-0.0032 -0.0248 0.4510 22 20 25
-0.0018 -0.0240 0.4509 29 29 32
-0.0009 -0.0248 0.4505 36 31 37
0.0009 -0.0247 0.4511 28 29 33
-0.1745 -0.0229 0.4502 46 47 42
-0.1732 -0.0235 0.4512 44 50 46
-0.0977 -0.0235 0.4501 28 26 27
-0.0971 -0.0234 0.4506 27 26 27
-0.0785 -0.0228 0.4506 32 33 27
-0.0378 -0.0229 0.4510 29 28 34
0.1437 -0.0233 0.4504 91 86 90
0.1461 -0.0229 0.4509 82 78 77
0.1473 -0.0229 0.4505 82 78 77
0.1492 -0.0229 0.4505 71 74 65
-0.1819 -0.0219 0.4510 76 75 81
-0.1773 -0.0220 0.4506 52 51 47
-0.0789 -0.0222 0.4509 36 35 31
-0.0781 -0.0224 0.4501 31 30 25
-0.0406 -0.0217 0.4503 31 29 33
-0.0398 -0.0216 0.4511 32 32 34
-0.0277 -0.0215 0.4512 29 27 30
0.1342 -0.0216 0.4508 77 74 67
-0.1810 -0.0205 0.4504 67 69 70
-0.0789 -0.0201 0.4507 36 34 37
-0.0433 -0.0202 0.4502 31 32 36
-0.0424 -0.0207 0.4503 21 22 24
-0.0308 -0.0210 0.4511 16 17 22
-0.0297 -0.0208 0.4506 30 29 34
-0.0286 -0.0211 0.4507 33 31 34
0.1294 -0.0202 0.4501 54 54 56
0.1328 -0.0212 0.4500 78 75 66
-0.1808 -0.0191 0.4509 73 73 75
-0.0789 -0.0193 0.4510 29 33 35
-0.0783 -0.0195 0.4503 20 27 29
-0.0449 -0.0191 0.4501 26 27 32
-0.0435 -0.0196 0.4509 29 27 30
-0.0334 -0.0196 0.4508 25 22 29
-0.0321 -0.0197 0.4506 24 28 31
-0.0271 -0.0198 0.4503 27 27 30
0.1257 -0.0190 0.4503 45 45 40
0.1275 -0.0194 0.4509 47 48 43
0.1283 -0.0199 0.4503 50 48 44
-0.1953 -0.0176 0.4504 73 80 73
-0.1818 -0.0178 0.4504 54 54 54
-0.0790 -0.0175 0.4511 28 33 36
-0.0338 -0.0178 0.4512 28 23 27
-0.0328 -0.0181 0.4505 30 25 29
-0.0267 -0.0180 0.4507 32 27 31
0.1248 -0.0180 0.4506 46 47 42
-0.1947 -0.0169 0.4501 90 90 88
-0.1824 -0.0169 0.4505 81 81 81
-0.0785 -0.0172 0.4507 30 35 38
-0.0482 -0.0163 0.4505 31 29 32
-0.0330 -0.0170 0.4510 31 26 33
-0.0322 -0.0165 0.4507 25 23 28
-0.0272 -0.0165 0.4506 36 34 38
-0.0781 -0.0159 0.4509 28 29 29
-0.0489 -0.0157 0.4504 26 24 27
-0.0319 -0.0154 0.4510 29 26 34
-0.0299 -0.0154 0.4502 27 29 34
-0.0284 -0.0150 0.4504 27 26 34
0.1236 -0.0153 0.4509 54 54 52
-0.1840 -0.0139 0.4503 77 77 77
-0.1837 -0.0149 0.4506 81 82 84
-0.0754 -0.0140 0.4509 20 21 26
-0.0735 -0.0140 0.4501 31 32 37
-0.0699 -0.0140 0.4505 27 28 30
-0.0679 -0.0146 0.4501 31 31 33
-0.0656 -0.0140 0.4500 30 29 34
-0.0505 -0.0140 0.4505 32 32 32
-0.0294 -0.0146 0.4511 30 30 34
0.0552 -0.0139 0.4507 17 25 27
0.1231 -0.0148 0.4502 53 51 52
-0.1840 -0.0137 0.4507 85 85 83
-0.0730 -0.0132 0.4511 24 27 31
-0.0690 -0.0132 0.4511 31 30 35
-0.0666 -0.0128 0.4510 25 27 31
-0.0656 -0.0133 0.4504 31 31 33
-0.0509 -0.0132 0.4510 32 31 36
0.1224 -0.0130 0.4503 55 53 54
0.1234 -0.0133 0.4512 54 54 52
-0.0641 -0.0123 0.4503 26 26 28
-0.0636 -0.0123 0.4502 29 29 31
0.1218 -0.0121 0.4507 57 56 53
-0.1844 -0.0112 0.4502 103 104 98
-0.0648 -0.0107 0.4510 24 25 30
-0.0529 -0.0105 0.4505 26 28 30
0.1176 -0.0104 0.4503 38 39 34
0.1201 -0.0110 0.4512 58 56 57
-0.0642 -0.0089 0.4510 27 28 32
-0.0529 -0.0098 0.4508 24 22 27
0.0634 -0.0093 0.4505 29 31 28
0.0640 -0.0092 0.4504 31 27 24
0.1143 -0.0090 0.4504 45 43 43
0.1168 -0.0096 0.4510 38 39 32
-0.0650 -0.0079 0.4512 28 29 31
-0.0631 -0.0082 0.4504 24 26 29
-0.0538 -0.0080 0.4506 31 27 32
-0.0530 -0.0077 0.4512 24 22 27
-0.0428 -0.0081 0.4502 28 25 34
-0.0421 -0.0084 0.4504 27 25 32
-0.0405 -0.0079 0.4504 34 27 33
-0.0395 -0.0076 0.4504 31 26 32
0.0687 -0.0083 0.4509 30 34 37
0.0697 -0.0081 0.4510 31 32 34
0.0702 -0.0081 0.4507 28 28 28
0.0718 -0.0078 0.4511 26 30 33
0.0726 -0.0078 0.4505 25 30 33
0.0738 -0.0077 0.4505 25 29 28
0.0761 -0.0076 0.4502 32 34 33
0.1108 -0.0079 0.4502 39 43 39
0.1131 -0.0083 0.4510 50 46 47
0.1138 -0.0086 0.4508 55 51 52
-0.0635 -0.0067 0.4502 29 29 31
-0.0527 -0.0065 0.4511 23 20 27
-0.0444 -0.0066 0.4505 29 27 38
-0.0390 -0.0068 0.4505 26 23 34
-0.0387 -0.0066 0.4509 27 24 35
0.0771 -0.0075 0.4502 30 33 33
0.0780 -0.0073 0.4507 30 32 32
0.0812 -0.0070 0.4507 29 31 30
0.0818 -0.0070 0.4507 32 32 30
0.0834 -0.0069 0.4504 30 28 33
0.0839 -0.0067 0.4508 33 31 34
0.1077 -0.0065 0.4504 24 24 22
0.1093 -0.0071 0.4505 36 35 34
-0.0675 -0.0062 0.4512 36 34 35
-0.0657 -0.0059 0.4509 29 24 28
-0.0634 -0.0058 0.4504 24 24 26
-0.0605 -0.0050 0.4502 28 29 31
-0.0532 -0.0058 0.4505 26 25 29
-0.0469 -0.0054 0.4511 17 20 25
-0.0459 -0.0062 0.4510 19 20 29
-0.0449 -0.0055 0.4503 28 26 37
-0.0385 -0.0055 0.4507 30 26 34
0.0862 -0.0059 0.4511 32 31 37
0.0873 -0.0056 0.4510 33 28 32
0.0888 -0.0053 0.4502 34 32 37
0.0924 -0.0052 0.4501 39 31 29
0.1030 -0.0051 0.4507 34 32 33
0.1044 -0.0054 0.4506 47 53 44
0.1060 -0.0060 0.4502 50 55 51
-0.0628 -0.0050 0.4508 33 33 35
-0.0618 -0.0045 0.4509 33 33 35
-0.0610 -0.0047 0.4506 25 26 29
-0.0594 -0.0043 0.4504 23 22 28
-0.0583 -0.0038 0.4500 22 23 28
-0.0518 -0.0042 0.4504 27 26 33
-0.0508 -0.0048 0.4510 28 27 32
-0.0494 -0.0044 0.4509 22 23 27
-0.0482 -0.0046 0.4510 24 27 34
-0.0390 -0.0040 0.4502 27 24 33
-0.0384 -0.0047 0.4506 24 23 31
0.0911 -0.0050 0.4507 34 27 34
0.0916 -0.0048 0.4511 34 27 34
0.0960 -0.0049 0.4502 34 32 35
0.0970 -0.0047 0.4507 54 51 56
0.0987 -0.0045 0.4509 58 53 59
0.0992 -0.0045 0.4509 78 79 81
-0.0594 -0.0032 0.4508 28 29 34
-0.0582 -0.0035 0.4501 22 23 28
-0.0508 -0.0037 0.4502 27 28 33
-0.0582 -0.0015 0.4509 32 31 36
-0.0572 -0.0015 0.4501 18 19 23
-0.0580 -0.0004 0.4504 25 25 28
-0.0389 -0.0005 0.4502 26 20 30
-0.0384 -0.0007 0.4506 27 22 31
-0.0591 0.0004 0.4511 23 24 29
0.0033 0.0010 0.4511 36 31 37
-0.0352 0.0020 0.4505 34 28 40
-0.0344 0.0017 0.4509 20 20 28
0.0023 0.0020 0.4510 30 25 29
0.0046 0.0017 0.4509 30 28 33
0.0054 0.0017 0.4510 27 27 31
0.0070 0.0024 0.4512 24 25 29
-0.0591 0.0028 0.4502 27 28 28
-0.0342 0.0027 0.4502 25 20 27
-0.0330 0.0035 0.4505 24 23 28
-0.0310 0.0025 0.4512 27 28 32
0.0014 0.0031 0.4512 35 33 38
0.0031 0.0036 0.4502 24 25 27
0.0059 0.0029 0.4506 27 25 26
-0.0606 0.0049 0.4510 32 34 31
-0.0594 0.0048 0.4502 32 31 36
-0.0330 0.0039 0.4505 26 24 29
-0.0322 0.0046 0.4507 26 21 27
-0.0310 0.0048 0.4510 29 24 30
-0.0300 0.0047 0.4509 24 28 29
-0.0280 0.0044 0.4509 26 29 34
0.0033 0.0038 0.4502 23 27 28
0.0070 0.0039 0.4506 25 23 24
0.0087 0.0049 0.4508 27 27 29
-0.0698 0.0060 0.4511 24 22 25
-0.0679 0.0056 0.4507 26 26 24
-0.0659 0.0055 0.4507 29 30 34
-0.0643 0.0053 0.4510 29 30 32
-0.0600 0.0051 0.4506 27 29 26
-0.0318 0.0055 0.4505 25 26 31
-0.0306 0.0062 0.4507 27 29 33
-0.0291 0.0059 0.4506 26 28 32
-0.0286 0.0057 0.4506 21 25 28
-0.0258 0.0055 0.4507 32 30 33
-0.0246 0.0054 0.4510 29 28 31
0.0017 0.0051 0.4503 37 32 39
-0.0726 0.0074 0.4508 20 24 27
-0.0704 0.0068 0.4505 30 28 30
-0.0696 0.0065 0.4504 25 23 26
-0.0636 0.0070 0.4501 30 34 35
-0.0605 0.0068 0.4507 33 33 32
-0.0313 0.0069 0.4503 22 23 27
-0.0309 0.0067 0.4505 23 23 27
-0.0296 0.0067 0.4506 26 30 33
-0.0277 0.0063 0.4504 17 22 25
-0.0254 0.0068 0.4504 32 26 33
-0.0012 0.0071 0.4512 30 26 27
0.0011 0.0066 0.4501 24 25 27
0.0095 0.0069 0.4503 28 26 29
-0.0748 0.0087 0.4507 34 35 37
-0.0721 0.0076 0.4503 26 30 33
-0.0626 0.0085 0.4504 25 28 33
-0.0622 0.0086 0.4506 24 27 32
-0.0595 0.0083 0.4506 29 29 32
-0.0299 0.0076 0.4505 28 29 34
-0.0280 0.0083 0.4502 30 32 37
-0.0240 0.0084 0.4502 31 29 26
-0.0230 0.0085 0.4504 66 60 55
-0.0002 0.0079 0.4506 31 29 30
0.0005 0.0086 0.4502 29 29 27
0.0107 0.0084 0.4506 27 27 32
-0.0756 0.0095 0.4508 32 32 34
-0.0748 0.0095 0.4501 32 33 35
-0.0626 0.0097 0.4506 25 30 33
-0.0576 0.0093 0.4505 28 28 29
-0.0571 0.0099 0.4508 27 28 31
-0.0279 0.0097 0.4500 30 31 35
-0.0240 0.0093 0.4500 32 31 29
-0.0229 0.0093 0.4502 50 44 41
-0.0207 0.0097 0.4508 66 58 55
-0.0006 0.0097 0.4510 25 25 25
0.0117 0.0089 0.4512 33 31 34
-0.0768 0.0103 0.4511 28 28 30
-0.0555 0.0103 0.4505 29 33 34
-0.0549 0.0107 0.4509 28 32 33
-0.0535 0.0110 0.4505 26 30 31
-0.0519 0.0111 0.4509 24 28 31
-0.0463 0.0103 0.4500 27 25 30
-0.0452 0.0105 0.4507 33 31 36
-0.0437 0.0112 0.4509 29 28 33
-0.0216 0.0107 0.4502 72 61 59
-0.0202 0.0107 0.4508 71 63 58
-0.0004 0.0101 0.4509 28 28 28
0.0010 0.0109 0.4502 31 29 30
0.0122 0.0104 0.4512 30 25 29
-0.0777 0.0117 0.4512 31 32 34
-0.0769 0.0123 0.4506 32 33 35
-0.0756 0.0113 0.4501 32 34 31
-0.0639 0.0124 0.4508 26 30 33
-0.0428 0.0114 0.4505 33 34 39
-0.0423 0.0118 0.4511 28 27 35
-0.0232 0.0121 0.4503 69 60 56
-0.0220 0.0121 0.4506 77 63 60
-0.0200 0.0118 0.4512 69 58 52
0.0004 0.0122 0.4512 32 32 30
0.0015 0.0123 0.4506 33 33 33
0.0031 0.0122 0.4502 31 30 30
0.0038 0.0120 0.4501 37 33 30
0.0052 0.0120 0.4501 30 30 29
0.0078 0.0120 0.4504 30 30 30
0.0094 0.0118 0.4508 29 29 31
-0.0767 0.0130 0.4507 33 34 35
-0.0752 0.0131 0.4502 37 36 41
-0.0742 0.0137 0.4508 35 39 42
-0.0714 0.0137 0.4504 35 36 38
-0.0703 0.0136 0.4502 29 30 34
-0.0658 0.0130 0.4500 36 35 40
-0.0400 0.0130 0.4510 25 31 31
-0.0390 0.0134 0.4505 24 28 31
-0.0260 0.0130 0.4504 59 50 48
-0.0249 0.0136 0.4512 80 62 58
-0.0233 0.0132 0.4510 80 62 58
-0.0224 0.0128 0.4508 49 45 42
0.0021 0.0126 0.4507 32 28 34
0.0038 0.0131 0.4512 27 25 28
0.0066 0.0127 0.4511 31 29 32
-0.0716 0.0143 0.4512 37 36 41
-0.0699 0.0141 0.4509 36 34 39
-0.0683 0.0138 0.4506 34 34 36
-0.0666 0.0138 0.4510 26 31 34
-0.0380 0.0140 0.4504 29 30 35
-0.0356 0.0148 0.4509 40 41 46
-0.0295 0.0148 0.4512 70 58 52
-0.0277 0.0140 0.4502 28 29 31
-0.0343 0.0151 0.4507 33 34 39
-0.0330 0.0153 0.4512 31 30 36
-0.0271 0.0412 0.4507 94 67 50
-0.0261 0.0411 0.4501 88 65 51
-0.0245 0.0407 0.4502 85 63 49
-0.0229 0.0406 0.4503 71 51 42
-0.0203 0.0410 0.4509 73 53 42
-0.0196 0.0412 0.4506 73 53 42
-0.0338 0.0424 0.4508 96 70 53
-0.0315 0.0421 0.4511 93 70 52
-0.0297 0.0418 0.4505 90 62 50
-0.0278 0.0414 0.4509 93 66 49
-0.0273 0.0414 0.4502 94 67 50
-0.0185 0.0415 0.4507 77 57 48
-0.0171 0.0419 0.4506 76 58 48
-0.0155 0.0423 0.4510 68 50 39
-0.0371 0.0429 0.4507 85 66 52
-0.0342 0.0425 0.4501 93 67 52
-0.0144 0.0427 0.4506 69 51 40
-0.0041 0.0461 0.4506 60 45 42
-0.0449 0.0464 0.4511 81 61 50
-0.0466 0.0482 0.4504 85 65 54
-0.0488 0.0499 0.4507 89 67 54
-0.0482 0.0494 0.4504 93 71 57
-0.0475 0.0488 0.4505 89 67 54
-0.0495 0.0506 0.4507 90 67 53
0.0053 0.0515 0.4512 70 51 45
-0.0538 0.0545 0.4511 93 71 57
0.0119 0.0606 0.4501 80 61 55
-0.0679 0.0678 0.4502 103 74 58
0.0201 0.0684 0.4507 93 70 64
-0.0717 0.0722 0.4512 111 82 66
-0.0743 0.0753 0.4506 124 97 84
0.0231 0.0753 0.4506 116 92 80
0.0236 0.0766 0.4501 105 83 70
0.0243 0.0781 0.4506 105 83 70
-0.0770 0.0789 0.4510 135 104 86
0.0256 0.0805 0.4508 112 92 83
0.0260 0.0817 0.4501 121 103 93
0.0289 0.0872 0.4509 153 131 123
0.0296 0.0893 0.4510 157 137 130
0.0305 0.0919 0.4506 157 141 128
0.0318 0.0953 0.4512 148 134 123
-0.0875 0.0995 0.4510 184 193 188
0.0323 0.0991 0.4505 149 129 118
0.0326 0.1000 0.4512 145 121 109
-0.0867 0.1023 0.4500 172 152 145
-0.0866 0.1041 0.4509 147 123 110
0.0327 0.1044 0.4506 145 121 111
-0.0861 0.1052 0.4503 151 126 119
-0.0859 0.1070 0.4500 143 119 107
0.0331 0.1069 0.4502 142 115 104
-0.0866 0.1093 0.4510 141 114 103
0.0336 0.1097 0.4508 142 122 111
-0.0866 0.1105 0.4506 140 113 102
0.0338 0.1106 0.4507 136 112 100
0.0342 0.1121 0.4511 133 109 97
-0.0877 0.1147 0.4509 138 110 98
-0.0878 0.1154 0.4504 138 110 96
-0.0883 0.1168 0.4507 137 108 94
-0.0885 0.1181 0.4503 138 109 95
0.0349 0.1176 0.4505 129 105 93
0.0352 0.1183 0.4510 130 108 94
-0.0889 0.1202 0.4504 137 109 97
0.0352 0.1202 0.4506 132 109 95
-0.0892 0.1221 0.4509 138 109 95
0.0355 0.1221 0.4511 133 110 96
-0.0890 0.1249 0.4506 138 110 96
0.0354 0.1239 0.4502 128 106 92
-0.0889 0.1260 0.4505 138 110 96
0.0358 0.1251 0.4511 127 106 89
-0.0888 0.1263 0.4504 139 111 97
-0.0891 0.1277 0.4512 138 110 98
-0.0887 0.1293 0.4504 138 110 96
0.0359 0.1295 0.4506 127 105 95
0.0360 0.1310 0.4506 126 104 91
-0.0892 0.1322 0.4511 137 111 98
0.0359 0.1319 0.4504 126 105 91
0.0358 0.1329 0.4501 128 106 95
-0.0892 0.1347 0.4506 138 111 100
0.0360 0.1345 0.4503 127 105 93
0.0363 0.1346 0.4511 127 105 92
-0.0894 0.1356 0.4509 137 110 99
0.0362 0.1362 0.4506 126 104 91
-0.0895 0.1370 0.4506 140 114 103
-0.0898 0.1384 0.4510 136 109 98
0.0364 0.1387 0.4508 133 111 99
0.0362 0.1389 0.4504 133 113 102
-0.0901 0.1421 0.4501 139 116 102
0.0367 0.1417 0.4512 133 109 97
-0.0905 0.1426 0.4508 139 116 102
0.0365 0.1433 0.4508 129 106 93
-0.0911 0.1450 0.4512 136 110 97
-0.0909 0.1451 0.4508 139 114 102
-0.0914 0.1473 0.4510 132 108 96
-0.0910 0.1472 0.4501 135 111 99
0.0365 0.1467 0.4505 132 106 93
-0.0913 0.1480 0.4504 132 108 96
0.0363 0.1484 0.4502 129 107 94
-0.0918 0.1509 0.4507 132 109 95
0.0366 0.1509 0.4509 131 109 96
-0.0921 0.1540 0.4509 136 114 101
0.0361 0.1549 0.4507 133 109 97
0.0363 0.1543 0.4511 134 110 98
-0.0925 0.1556 0.4512 138 116 103
0.0358 0.1558 0.4503 127 104 90
0.0360 0.1566 0.4509 134 110 98
-0.0926 0.1583 0.4507 135 116 102
0.0357 0.1578 0.4505 132 108 95
-0.0924 0.1590 0.4503 136 118 104
0.0355 0.1602 0.4507 132 109 95
-0.0923 0.1617 0.4504 137 118 106
0.0354 0.1624 0.4508 132 109 95
-0.0922 0.1633 0.4505 140 117 106
0.0354 0.1637 0.4504 131 107 95
0.0354 0.1648 0.4503 131 107 97
-0.0922 0.1656 0.4509 132 115 99
0.0355 0.1653 0.4505 132 108 98
-0.0920 0.1685 0.4511 131 112 97
0.0358 0.1687 0.4504 127 105 94
-0.0919 0.1693 0.4509 133 111 97
0.0359 0.1693 0.4500 129 107 96
-0.0916 0.1708 0.4508 126 103 89
0.0362 0.1704 0.4501 129 107 96
-0.0918 0.1714 0.4511 126 103 89
-0.0914 0.1759 0.4502 128 106 91
0.0378 0.1771 0.4508 133 110 96
-0.0922 0.1787 0.4509 121 99 85
0.0379 0.1778 0.4509 132 108 96
-0.0924 0.1797 0.4508 124 102 88
0.0375 0.1789 0.4504 131 109 96
0.0376 0.1798 0.4507 131 107 95
-0.0928 0.1809 0.4510 126 104 90
0.0375 0.1810 0.4506 131 112 98
-0.0927 0.1816 0.4505 120 98 87
0.0373 0.1814 0.4503 131 112 98
0.0377 0.1825 0.4511 129 111 101
-0.0939 0.1842 0.4511 119 97 86
-0.0937 0.1838 0.4509 119 97 86
0.0376 0.1845 0.4505 131 109 98
-0.0943 0.1869 0.4507 111 93 81
0.0378 0.1866 0.4502 129 108 97
-0.0951 0.1896 0.4510 120 97 89
-0.0948 0.1894 0.4506 117 94 86
0.0382 0.1893 0.4504 129 111 99
-0.0955 0.1937 0.4507 110 92 80
0.0384 0.1932 0.4501 130 112 102
-0.0959 0.1949 0.4512 112 94 80
0.0385 0.1938 0.4505 130 112 102
-0.0956 0.1958 0.4502 117 99 85
0.0383 0.1954 0.4501 130 110 101
-0.0961 0.1968 0.4509 121 104 94
-0.0961 0.1979 0.4502 121 103 89
-0.0970 0.1995 0.4507 126 112 103
0.0379 0.1992 0.4509 131 114 104
-0.0975 0.2002 0.4511 128 111 103
-0.0974 0.2034 0.4502 134 117 109
-0.0980 0.2042 0.4511 132 115 107
0.0357 0.2040 0.4501 132 112 101
0.0353 0.2054 0.4506 131 115 101
-0.0960 0.2070 0.4502 124 107 97
-0.0956 0.2093 0.4509 128 113 103
-0.0950 0.2109 0.4512 126 108 94
-0.0947 0.2105 0.4505 127 110 97
-0.0932 0.2132 0.4501 126 108 98
0.0329 0.2142 0.4505 131 112 98
-0.0912 0.2165 0.4502 133 110 94
0.0320 0.2171 0.4502 134 115 100
0.0326 0.2164 0.4510 132 113 98
-0.0899 0.2181 0.4506 132 110 96
0.0318 0.2181 0.4507 135 116 101
-0.0859 0.2222 0.4502 137 115 101
-0.0859 0.2225 0.4506 139 116 102
0.0295 0.2241 0.4504 136 116 107
0.0294 0.2256 0.4509 145 123 111
-0.0831 0.2284 0.4505 149 127 114
0.0286 0.2281 0.4506 158 150 143
-0.0828 0.2291 0.4505 140 118 105
0.0284 0.2289 0.4506 156 149 141
0.0283 0.2305 0.4511 153 153 145
0.0265 0.2319 0.4504 150 133 124
0.0246 0.2337 0.4504 151 133 123
0.0258 0.2331 0.4509 163 145 137
0.0250 0.2339 0.4509 145 125 116
0.0229 0.2357 0.4505 148 130 121
-0.0798 0.2373 0.4501 141 120 103
-0.0799 0.2381 0.4511 138 119 105
-0.0793 0.2394 0.4506 136 117 105
0.0197 0.2407 0.4505 160 142 132
-0.0525 0.2634 0.4508 155 136 122
-0.0515 0.2631 0.4500 165 145 134
-0.0513 0.2644 0.4510 167 147 138
-0.0508 0.2642 0.4504 168 149 142
-0.0500 0.2653 0.4507 167 147 138
-0.0483 0.2659 0.4503 170 157 147
-0.0478 0.2673 0.4510 190 206 203
-0.0465 0.2673 0.4505 162 146 133
-0.0463 0.2681 0.4508 194 203 198
-0.0459 0.2680 0.4505 173 166 158
-0.0454 0.2694 0.4509 202 212 210
-0.0359 0.2712 0.4501 203 212 209
-0.0328 0.2714 0.4506 224 237 230
-0.0324 0.2723 0.4502 230 243 236
-0.0365 0.2729 0.4500 223 232 227
-0.0362 0.2730 0.4505 224 234 226
-0.0321 0.2735 0.4504 229 240 231
-0.0464 0.2742 0.4509 212 218 216
-0.1439 -0.0388 0.4524 59 60 62
-0.1429 -0.0394 0.4517 18 15 17
-0.1417 -0.0396 0.4516 40 48 42
-0.1406 -0.0393 0.4519 35 36 30
-0.1397 -0.0390 0.4521 34 37 31
-0.1255 -0.0388 0.4517 21 21 19
-0.1243 -0.0389 0.4515 29 30 24
-0.1237 -0.0393 0.4513 26 32 32
-0.1475 -0.0378 0.4519 73 73 73
-0.1455 -0.0386 0.4515 54 54 52
-0.1450 -0.0387 0.4516 57 57 57
-0.1372 -0.0377 0.4524 30 34 28
-0.1257 -0.0384 0.4518 30 30 28
-0.1240 -0.0381 0.4518 23 26 24
-0.1224 -0.0384 0.4514 25 27 26
-0.1503 -0.0366 0.4513 97 98 93
-0.1487 -0.0372 0.4519 38 38 36
-0.1364 -0.0370 0.4524 32 29 22
-0.1356 -0.0368 0.4521 30 27 22
-0.1347 -0.0368 0.4513 31 30 26
-0.1276 -0.0366 0.4513 33 33 35
-0.1273 -0.0370 0.4514 23 23 23
-0.1255 -0.0370 0.4523 23 26 19
-0.1245 -0.0369 0.4525 28 35 37
-0.1224 -0.0364 0.4521 22 24 23
-0.1518 -0.0354 0.4522 94 93 93
-0.1511 -0.0361 0.4520 98 98 96
-0.1336 -0.0359 0.4515 27 27 25
-0.1308 -0.0350 0.4514 25 24 22
-0.1293 -0.0358 0.4513 31 31 33
-0.1266 -0.0358 0.4522 28 30 29
-0.1204 -0.0361 0.4515 28 29 23
-0.1200 -0.0352 0.4518 24 25 27
-0.1530 -0.0345 0.4519 73 73 74
-0.1321 -0.0348 0.4517 27 31 32
-0.1301 -0.0347 0.4518 27 31 30
-0.1295 -0.0344 0.4522 29 31 30
-0.1194 -0.0342 0.4520 31 31 29
-0.1179 -0.0330 0.4520 28 29 30
-0.1554 -0.0319 0.4516 67 69 69
-0.1550 -0.0325 0.4514 72 72 72
-0.1559 -0.0311 0.4518 72 73 75
-0.1157 -0.0309 0.4523 28 29 30
-0.1145 -0.0306 0.4517 27 28 27
-0.1135 -0.0302 0.4514 29 31 28
-0.1602 -0.0288 0.4518 81 85 86
-0.1136 -0.0295 0.4521 24 30 30
-0.1667 -0.0276 0.4516 88 90 89
-0.1632 -0.0284 0.4514 98 102 103
-0.1131 -0.0286 0.4523 24 30 30
-0.1104 -0.0275 0.4518 24 24 24
-0.0855 -0.0276 0.4520 26 27 31
-0.0843 -0.0281 0.4517 25 24 29
-0.0834 -0.0282 0.4514 25 26 31
-0.0817 -0.0276 0.4518 30 29 34
-0.0803 -0.0280 0.4516 34 29 35
0.0085 -0.0281 0.4516 31 30 28
0.0263 -0.0277 0.4517 25 24 20
0.0376 -0.0280 0.4521 15 26 22
0.0388 -0.0281 0.4524 18 19 21
-0.1688 -0.0266 0.4517 55 61 56
-0.1677 -0.0271 0.4517 73 75 74
-0.1672 -0.0271 0.4524 80 82 81
-0.1102 -0.0267 0.4522 24 26 23
-0.1095 -0.0271 0.4518 24 24 22
-0.1083 -0.0269 0.4515 34 34 34
-0.0880 -0.0266 0.4515 23 22 27
-0.0849 -0.0271 0.4524 19 23 27
-0.0819 -0.0275 0.4520 31 30 35
-0.0807 -0.0267 0.4522 32 32 34
-0.0793 -0.0263 0.4513 30 30 32
-0.0151 -0.0273 0.4523 29 26 33
-0.0145 -0.0273 0.4516 28 22 32
-0.0131 -0.0271 0.4516 29 25 35
-0.0117 -0.0270 0.4522 30 24 34
-0.0103 -0.0268 0.4519 25 22 31
-0.0078 -0.0263 0.4523 38 33 37
0.0068 -0.0270 0.4518 27 27 30
0.0279 -0.0274 0.4516 29 25 26
0.0291 -0.0272 0.4522 33 30 25
0.0308 -0.0272 0.4520 21 21 21
0.0330 -0.0274 0.4516 34 29 25
-0.1698 -0.0257 0.4523 65 71 67
-0.1075 -0.0257 0.4521 27 28 30
-0.1059 -0.0254 0.4518 27 28 30
-0.0913 -0.0253 0.4520 29 27 30
-0.0882 -0.0262 0.4519 27 29 33
-0.0804 -0.0256 0.4524 32 32 33
-0.0792 -0.0261 0.4513 37 37 39
-0.0063 -0.0252 0.4522 21 19 24
-0.0058 -0.0252 0.4514 34 29 33
0.0027 -0.0251 0.4517 25 29 28
0.0045 -0.0254 0.4520 27 27 27
0.0051 -0.0255 0.4524 32 32 32
-0.1717 -0.0244 0.4521 81 83 82
-0.1712 -0.0249 0.4516 71 77 75
-0.1035 -0.0240 0.4518 32 32 34
-0.0937 -0.0247 0.4514 32 33 37
-0.0801 -0.0245 0.4525 24 30 30
-0.0797 -0.0238 0.4520 38 34 35
-0.0351 -0.0241 0.4519 19 20 22
-0.0346 -0.0243 0.4521 22 23 27
-0.0332 -0.0248 0.4515 27 28 32
-0.0302 -0.0238 0.4514 24 24 26
-0.0270 -0.0244 0.4520 29 27 29
-0.0055 -0.0243 0.4525 31 30 36
-0.0039 -0.0245 0.4516 34 28 30
-0.0036 -0.0238 0.4517 23 21 26
0.0017 -0.0239 0.4522 31 30 35
-0.1033 -0.0236 0.4521 29 29 29
-0.1022 -0.0231 0.4520 28 29 30
-0.1008 -0.0226 0.4518 26 30 33
-0.0975 -0.0226 0.4520 31 29 30
-0.0971 -0.0228 0.4518 28 23 27
-0.0795 -0.0228 0.4516 30 29 27
-0.0370 -0.0228 0.4516 29 29 34
-0.0356 -0.0234 0.4521 28 29 29
-0.0322 -0.0235 0.4523 29 27 34
-0.0308 -0.0226 0.4525 24 23 29
-0.0291 -0.0229 0.4522 28 25 32
-0.0041 -0.0232 0.4523 27 25 30
-0.0006 -0.0230 0.4519 27 25 30
0.0004 -0.0228 0.4524 29 30 33
0.1479 -0.0225 0.4516 79 79 74
-0.1778 -0.0217 0.4518 68 68 68
-0.1766 -0.0218 0.4520 45 46 41
-0.1758 -0.0222 0.4521 43 43 38
-0.1013 -0.0223 0.4525 24 28 31
-0.0990 -0.0222 0.4520 29 28 26
-0.0978 -0.0223 0.4525 31 26 30
-0.0795 -0.0220 0.4516 38 34 33
-0.0378 -0.0224 0.4515 24 25 29
-0.0368 -0.0224 0.4521 29 29 31
-0.0337 -0.0214 0.4524 31 29 34
-0.0316 -0.0214 0.4517 23 26 31
-0.0304 -0.0217 0.4516 28 27 33
-0.0286 -0.0220 0.4514 31 29 34
-0.0265 -0.0219 0.4521 29 27 28
-0.0262 -0.0216 0.4521 26 24 25
-0.0027 -0.0223 0.4522 27 26 31
-0.0023 -0.0225 0.4520 30 29 34
0.1343 -0.0213 0.4521 72 69 64
0.1358 -0.0221 0.4516 87 84 77
0.1482 -0.0222 0.4523 57 59 54
0.1508 -0.0215 0.4521 62 58 55
-0.1805 -0.0210 0.4519 58 58 58
-0.1798 -0.0210 0.4522 57 53 54
-0.0805 -0.0206 0.4524 32 29 33
-0.0401 -0.0206 0.4519 27 28 30
-0.0398 -0.0207 0.4518 30 30 32
-0.0384 -0.0212 0.4521 31 31 33
-0.0357 -0.0202 0.4522 30 28 33
-0.0340 -0.0202 0.4514 32 32 34
-0.0336 -0.0209 0.4518 26 26 28
-0.0324 -0.0208 0.4513 30 25 32
-0.0260 -0.0209 0.4521 30 26 27
0.1337 -0.0212 0.4515 72 69 64
-0.1807 -0.0196 0.4516 65 66 68
-0.0803 -0.0200 0.4523 30 25 31
-0.0429 -0.0190 0.4522 30 30 31
-0.0415 -0.0196 0.4523 27 29 28
0.0523 -0.0193 0.4515 19 25 25
0.1286 -0.0189 0.4523 55 54 52
0.1293 -0.0192 0.4524 47 46 42
-0.0455 -0.0176 0.4517 30 29 34
-0.0440 -0.0186 0.4519 29 29 31
-0.0355 -0.0182 0.4523 30 25 31
-0.0344 -0.0180 0.4516 25 21 26
-0.0259 -0.0185 0.4518 34 33 35
0.1256 -0.0181 0.4513 51 53 48
0.1264 -0.0181 0.4520 52 54 49
0.1278 -0.0186 0.4522 50 49 47
-0.1958 -0.0170 0.4514 92 92 90
-0.1825 -0.0165 0.4515 82 82 82
-0.1822 -0.0169 0.4520 56 56 56
-0.0794 -0.0170 0.4516 28 30 32
-0.0460 -0.0172 0.4517 28 27 32
-0.0352 -0.0174 0.4524 29 27 30
-0.0341 -0.0172 0.4517 36 29 36
-0.1832 -0.0153 0.4520 80 82 81
-0.0478 -0.0158 0.4514 27 28 32
-0.0474 -0.0160 0.4516 29 30 34
-0.0324 -0.0152 0.4516 28 25 36
-0.0273 -0.0155 0.4520 31 28 35
0.1245 -0.0156 0.4520 53 53 52
-0.1837 -0.0145 0.4518 82 82 82
-0.0776 -0.0144 0.4520 30 32 31
-0.0762 -0.0138 0.4513 26 32 28
-0.0493 -0.0143 0.4515 25 28 31
-0.0484 -0.0147 0.4519 33 37 36
-0.0324 -0.0148 0.4519 29 26 35
-0.0308 -0.0143 0.4517 32 32 36
-0.1838 -0.0131 0.4521 87 88 84
-0.0766 -0.0133 0.4523 25 25 25
-0.0760 -0.0134 0.4516 25 25 30
-0.0691 -0.0126 0.4515 24 28 31
-0.0494 -0.0136 0.4522 26 29 31
0.1242 -0.0136 0.4522 55 55 53
-0.0754 -0.0122 0.4522 28 28 33
-0.0726 -0.0121 0.4517 28 29 33
-0.0718 -0.0123 0.4516 25 26 29
-0.0710 -0.0119 0.4518 23 24 29
-0.0694 -0.0117 0.4518 24 28 31
-0.0685 -0.0119 0.4517 23 27 31
-0.0669 -0.0115 0.4515 25 26 31
-0.0509 -0.0117 0.4521 25 25 30
0.1218 -0.0115 0.4517 52 48 47
0.1233 -0.0121 0.4521 49 45 43
-0.0719 -0.0108 0.4522 25 25 30
-0.0712 -0.0101 0.4522 31 30 36
-0.0691 -0.0105 0.4520 25 26 31
-0.0683 -0.0103 0.4519 30 31 35
-0.0658 -0.0104 0.4514 27 28 33
-0.0519 -0.0107 0.4516 16 20 23
-0.0511 -0.0110 0.4523 24 24 32
0.1204 -0.0106 0.4520 51 45 45
-0.0726 -0.0088 0.4521 29 30 34
-0.0711 -0.0091 0.4520 24 25 27
-0.0697 -0.0090 0.4519 25 26 30
-0.0683 -0.0093 0.4519 28 32 33
-0.0650 -0.0092 0.4514 29 30 34
-0.0523 -0.0089 0.4521 28 27 32
-0.0429 -0.0097 0.4519 26 26 32
-0.0420 -0.0097 0.4519 25 26 31
-0.0407 -0.0090 0.4516 30 24 31
0.0643 -0.0089 0.4520 23 25 22
0.0651 -0.0088 0.4516 30 30 30
0.1159 -0.0089 0.4516 37 39 34
0.1180 -0.0096 0.4518 44 44 42
-0.0715 -0.0081 0.4518 34 34 36
-0.0694 -0.0083 0.4517 33 29 34
-0.0684 -0.0084 0.4517 22 28 28
-0.0655 -0.0086 0.4515 29 28 32
-0.0512 -0.0080 0.4523 29 27 32
-0.0467 -0.0080 0.4522 24 26 28
-0.0455 -0.0083 0.4520 28 24 34
-0.0446 -0.0082 0.4514 27 24 35
-0.0435 -0.0087 0.4513 26 25 31
-0.0385 -0.0085 0.4523 35 30 39
0.0667 -0.0084 0.4522 32 31 27
0.0681 -0.0084 0.4513 30 30 28
0.0709 -0.0078 0.4516 28 30 31
0.1125 -0.0078 0.4515 38 40 35
0.1137 -0.0080 0.4519 51 49 50
0.1141 -0.0080 0.4521 44 44 44
0.1161 -0.0087 0.4521 48 49 43
0.1164 -0.0087 0.4523 42 43 37
-0.0719 -0.0068 0.4519 26 25 30
-0.0687 -0.0064 0.4514 27 29 26
-0.0670 -0.0073 0.4514 20 25 31
-0.0516 -0.0064 0.4518 24 25 30
-0.0488 -0.0072 0.4524 21 21 23
-0.0477 -0.0071 0.4522 30 29 34
-0.0461 -0.0074 0.4516 27 27 37
0.0739 -0.0073 0.4518 25 27 24
0.0765 -0.0070 0.4525 37 38 40
0.0800 -0.0069 0.4516 34 35 30
0.0808 -0.0069 0.4514 32 34 29
0.0824 -0.0067 0.4522 31 36 34
0.0830 -0.0066 0.4519 31 34 31
0.1103 -0.0067 0.4520 38 39 35
0.1118 -0.0071 0.4524 41 41 33
-0.0722 -0.0055 0.4521 30 31 33
-0.0710 -0.0053 0.4519 30 30 30
-0.0497 -0.0059 0.4518 27 27 29
-0.0378 -0.0054 0.4518 26 21 32
0.0845 -0.0061 0.4522 25 24 22
0.0858 -0.0057 0.4521 21 19 22
0.0869 -0.0053 0.4522 31 28 30
0.1058 -0.0052 0.4519 61 67 63
0.1070 -0.0058 0.4515 49 55 51
0.1082 -0.0057 0.4525 28 33 27
0.1089 -0.0062 0.4519 30 35 28
-0.0723 -0.0049 0.4522 32 31 39
-0.0706 -0.0044 0.4520 30 29 34
-0.0678 -0.0045 0.4517 35 31 38
-0.0666 -0.0039 0.4520 27 28 30
-0.0658 -0.0043 0.4517 30 29 32
-0.0643 -0.0040 0.4519 29 27 30
-0.0379 -0.0039 0.4514 25 25 37
-0.0374 -0.0047 0.4520 26 24 35
0.0881 -0.0049 0.4522 24 30 26
0.0948 -0.0043 0.4525 38 36 39
0.0958 -0.0045 0.4516 47 45 50
0.0969 -0.0042 0.4522 92 91 95
0.0996 -0.0041 0.4521 57 61 62
0.1008 -0.0044 0.4519 34 38 37
0.1021 -0.0046 0.4517 44 45 43
0.1036 -0.0048 0.4519 32 33 31
0.1038 -0.0046 0.4524 77 76 72
-0.0707 -0.0037 0.4523 33 33 41
-0.0699 -0.0032 0.4525 28 28 30
-0.0663 -0.0031 0.4524 26 27 29
-0.0656 -0.0037 0.4520 29 30 32
-0.0614 -0.0031 0.4518 26 27 31
-0.0612 -0.0028 0.4518 27 28 32
-0.0377 -0.0027 0.4519 22 21 29
-0.0608 -0.0020 0.4520 23 23 24
-0.0603 -0.0005 0.4522 23 24 26
-0.0376 -0.0012 0.4514 29 26 35
-0.0366 -0.0002 0.4519 30 26 33
0.0030 -0.0004 0.4517 24 23 28
0.0044 -0.0006 0.4520 21 21 26
0.0062 -0.0000 0.4518 25 22 29
-0.0606 0.0002 0.4523 24 25 27
-0.0353 0.0007 0.4514 25 22 31
-0.0341 0.0004 0.4524 21 22 27
-0.0316 0.0007 0.4522 33 25 33
0.0019 0.0006 0.4517 29 29 30
0.0030 0.0006 0.4513 31 29 34
0.0048 0.0005 0.4515 26 25 30
0.0060 0.0001 0.4517 28 25 32
-0.0603 0.0019 0.4516 29 31 28
-0.0334 0.0015 0.4514 31 26 32
-0.0320 0.0017 0.4516 39 32 40
-0.0309 0.0021 0.4515 27 20 27
-0.0287 0.0022 0.4519 32 27 31
0.0002 0.0016 0.4525 24 26 25
0.0065 0.0017 0.4513 27 26 32
0.0078 0.0022 0.4516 23 23 25
-0.0667 0.0037 0.4525 28 29 33
-0.0629 0.0034 0.4518 26 28 31
-0.0620 0.0028 0.4517 24 25 27
-0.0610 0.0037 0.4516 28 33 29
-0.0276 0.0031 0.4516 27 28 32
-0.0267 0.0030 0.4519 25 25 30
-0.0243 0.0037 0.4524 18 21 26
0.0008 0.0035 0.4515 31 31 28
0.0086 0.0037 0.4514 24 22 23
0.0088 0.0029 0.4523 26 25 30
-0.0690 0.0049 0.4521 35 35 35
-0.0683 0.0049 0.4517 27 26 24
-0.0665 0.0042 0.4519 27 28 30
-0.0656 0.0046 0.4516 24 26 25
-0.0642 0.0043 0.4519 27 28 31
-0.0269 0.0040 0.4513 27 25 30
-0.0232 0.0049 0.4522 26 25 31
-0.0003 0.0046 0.4516 32 27 24
0.0002 0.0049 0.4513 31 26 23
0.0095 0.0045 0.4519 27 26 31
-0.0703 0.0054 0.4521 26 25 30
-0.0634 0.0058 0.4513 30 31 35
-0.0619 0.0058 0.4515 28 29 31
-0.0230 0.0058 0.4516 51 47 45
-0.0026 0.0062 0.4524 35 30 36
-0.0016 0.0055 0.4520 31 27 24
-0.0006 0.0056 0.4514 34 29 25
0.0105 0.0060 0.4520 21 22 26
0.0411 0.0062 0.4520 10 22 20
-0.0720 0.0065 0.4516 23 22 27
-0.0625 0.0066 0.4513 27 28 32
-0.0204 0.0075 0.4524 60 55 52
-0.0028 0.0065 0.4524 28 22 26
-0.0016 0.0068 0.4515 32 29 28
0.0104 0.0064 0.4515 16 21 25
-0.0754 0.0078 0.4522 26 27 29
-0.0748 0.0078 0.4517 26 27 29
-0.0206 0.0082 0.4516 57 51 49
-0.0024 0.0077 0.4519 31 31 29
-0.0615 0.0095 0.4521 33 34 36
-0.0602 0.0091 0.4520 30 29 34
-0.0596 0.0089 0.4513 28 28 30
-0.0194 0.0098 0.4518 64 59 53
-0.0023 0.0090 0.4520 32 30 31
0.0123 0.0092 0.4521 30 25 31
-0.0790 0.0109 0.4524 31 32 34
-0.0780 0.0108 0.4517 27 33 33
-0.0618 0.0104 0.4522 28 28 30
-0.0575 0.0103 0.4518 29 33 32
-0.0542 0.0111 0.4514 27 31 30
-0.0492 0.0111 0.4516 28 28 28
-0.0443 0.0112 0.4515 31 30 35
-0.0191 0.0107 0.4519 63 56 52
-0.0013 0.0109 0.4516 35 30 34
0.0121 0.0106 0.4513 34 29 33
0.0129 0.0108 0.4522 29 28 33
-0.0788 0.0114 0.4520 28 32 33
-0.0630 0.0120 0.4517 29 31 32
-0.0553 0.0113 0.4524 27 31 30
-0.0530 0.0113 0.4513 31 32 34
-0.0497 0.0114 0.4522 27 29 28
-0.0419 0.0124 0.4522 29 30 33
-0.0199 0.0123 0.4515 73 62 56
-0.0018 0.0120 0.4525 35 31 32
-0.0004 0.0123 0.4518 36 32 33
0.0111 0.0120 0.4520 32 27 33
0.0115 0.0121 0.4524 34 29 35
-0.0799 0.0132 0.4522 36 37 39
-0.0652 0.0137 0.4520 26 30 33
-0.0645 0.0131 0.4518 29 30 34
-0.0632 0.0126 0.4521 28 29 31
-0.0403 0.0131 0.4516 24 25 29
-0.0226 0.0136 0.4516 74 59 54
-0.0194 0.0128 0.4520 60 53 47
-0.0002 0.0125 0.4520 36 32 33
0.0032 0.0136 0.4520 33 33 36
0.0046 0.0135 0.4520 28 28 30
0.0060 0.0131 0.4517 29 27 32
0.0068 0.0134 0.4523 26 24 29
0.0076 0.0127 0.4514 37 31 35
0.0100 0.0128 0.4524 26 27 31
-0.0777 0.0140 0.4520 31 32 36
-0.0772 0.0142 0.4520 34 35 40
-0.0760 0.0145 0.4518 38 42 45
-0.0750 0.0144 0.4517 33 34 36
-0.0728 0.0148 0.4520 40 39 47
-0.0716 0.0148 0.4520 35 36 40
-0.0707 0.0145 0.4514 30 29 34
-0.0680 0.0145 0.4523 37 35 40
-0.0279 0.0149 0.4521 36 34 35
-0.0268 0.0146 0.4521 66 56 53
-0.0254 0.0144 0.4522 77 59 57
-0.0231 0.0141 0.4521 80 62 58
-0.0355 0.0152 0.4517 27 28 33
-0.0345 0.0157 0.4524 31 34 39
-0.0330 0.0154 0.4515 28 29 34
-0.0320 0.0155 0.4521 24 27 32
-0.0298 0.0150 0.4516 52 45 39
0.0249 0.0157 0.4524 33 33 35
0.0274 0.0162 0.4516 29 30 32
0.0249 0.0165 0.4525 34 33 39
0.0267 0.0165 0.4518 30 32 35
0.0281 0.0165 0.4515 28 28 30
0.0291 0.0165 0.4517 33 31 36
0.0304 0.0166 0.4524 31 30 36
-0.0257 0.0407 0.4520 88 64 48
-0.0242 0.0404 0.4519 87 64 50
-0.0229 0.0403 0.4523 87 63 51
-0.0217 0.0405 0.4524 79 59 48
-0.0208 0.0408 0.4515 72 52 41
-0.0199 0.0410 0.4522 77 55 44
-0.0335 0.0423 0.4516 97 70 53
-0.0318 0.0420 0.4517 90 67 50
-0.0294 0.0416 0.4523 99 72 55
-0.0189 0.0413 0.4525 74 55 48
-0.0167 0.0420 0.4518 73 55 46
-0.0162 0.0421 0.4519 73 54 47
-0.0130 0.0432 0.4523 68 51 43
-0.0040 0.0461 0.4522 62 46 43
-0.0456 0.0469 0.4514 77 59 49
0.0006 0.0491 0.4514 62 44 42
-0.0503 0.0511 0.4516 93 69 57
-0.0540 0.0544 0.4522 91 72 58
0.0077 0.0551 0.4520 66 51 44
-0.0647 0.0644 0.4520 90 66 54
0.0171 0.0639 0.4516 83 63 56
-0.0681 0.0676 0.4516 104 77 60
0.0200 0.0678 0.4520 88 68 61
0.0202 0.0687 0.4523 93 70 64
0.0203 0.0690 0.4519 91 68 62
-0.0745 0.0751 0.4516 123 95 81
0.0232 0.0753 0.4517 104 80 70
0.0261 0.0809 0.4522 116 93 87
0.0287 0.0857 0.4519 151 128 122
0.0295 0.0883 0.4517 152 129 123
0.0300 0.0898 0.4515 152 128 118
0.0310 0.0925 0.4518 154 138 125
0.0315 0.0939 0.4518 153 135 123
0.0322 0.0970 0.4515 148 133 121
0.0325 0.0977 0.4521 149 133 120
-0.0877 0.0997 0.4517 172 169 163
-0.0874 0.1018 0.4520 171 158 152
0.0329 0.1014 0.4518 146 128 119
-0.0869 0.1037 0.4513 146 122 110
-0.0872 0.1043 0.4518 158 137 126
-0.0872 0.1059 0.4521 152 130 119
0.0333 0.1055 0.4519 144 121 112
0.0337 0.1083 0.4517 143 119 107
0.0340 0.1096 0.4519 142 115 104
-0.0870 0.1112 0.4513 140 116 104
0.0344 0.1108 0.4524 141 114 103
-0.0873 0.1114 0.4520 141 117 105
0.0345 0.1114 0.4522 143 116 107
-0.0877 0.1133 0.4520 138 110 96
0.0347 0.1128 0.4519 134 107 96
-0.0879 0.1140 0.4519 140 114 102
0.0349 0.1145 0.4517 130 108 94
-0.0890 0.1171 0.4525 138 108 98
-0.0887 0.1173 0.4514 139 110 96
0.0352 0.1174 0.4515 129 107 93
0.0355 0.1181 0.4520 130 106 94
-0.0891 0.1194 0.4513 137 111 98
-0.0894 0.1204 0.4520 137 109 95
-0.0894 0.1219 0.4515 137 109 94
0.0358 0.1219 0.4518 130 107 93
-0.0894 0.1233 0.4515 138 109 93
0.0359 0.1225 0.4519 128 105 91
-0.0894 0.1257 0.4518 137 108 94
0.0361 0.1259 0.4518 128 107 90
-0.0893 0.1268 0.4516 140 112 100
0.0363 0.1269 0.4524 126 107 93
-0.0893 0.1280 0.4519 137 109 95
0.0362 0.1286 0.4516 126 106 95
-0.0896 0.1295 0.4524 140 112 100
0.0362 0.1295 0.4514 126 105 94
0.0363 0.1296 0.4517 126 106 95
-0.0893 0.1309 0.4517 141 111 100
0.0364 0.1308 0.4519 127 108 94
-0.0899 0.1334 0.4523 140 114 99
0.0367 0.1335 0.4524 127 105 94
-0.0896 0.1342 0.4517 140 114 99
0.0367 0.1345 0.4523 130 108 95
-0.0896 0.1356 0.4513 138 113 101
-0.0901 0.1365 0.4522 141 114 103
0.0368 0.1371 0.4521 129 107 94
0.0369 0.1376 0.4522 128 106 95
-0.0903 0.1393 0.4521 138 115 101
0.0368 0.1392 0.4517 137 115 104
-0.0903 0.1404 0.4517 137 114 100
0.0368 0.1407 0.4518 134 110 98
-0.0906 0.1423 0.4515 137 114 100
0.0369 0.1421 0.4518 133 109 97
0.0370 0.1428 0.4521 133 109 97
-0.0915 0.1448 0.4520 136 110 97
0.0370 0.1445 0.4519 131 107 95
-0.0917 0.1472 0.4518 135 111 99
-0.0920 0.1478 0.4524 133 110 96
-0.0920 0.1495 0.4521 133 107 96
0.0371 0.1496 0.4520 130 108 95
0.0372 0.1522 0.4523 133 114 100
-0.0926 0.1532 0.4522 135 108 97
0.0370 0.1530 0.4521 130 108 94
-0.0927 0.1539 0.4522 135 111 99
0.0368 0.1541 0.4519 134 110 98
-0.0929 0.1558 0.4520 136 114 101
-0.0930 0.1569 0.4518 136 112 100
-0.0933 0.1578 0.4523 133 109 97
-0.0930 0.1595 0.4515 134 116 104
0.0361 0.1593 0.4519 131 108 94
-0.0931 0.1607 0.4519 137 119 105
0.0361 0.1600 0.4521 134 111 97
0.0359 0.1617 0.4521 131 107 95
-0.0931 0.1629 0.4524 139 119 110
0.0360 0.1645 0.4521 133 109 99
-0.0928 0.1658 0.4523 134 115 101
0.0359 0.1662 0.4520 132 108 98
-0.0927 0.1663 0.4523 134 115 101
0.0358 0.1670 0.4516 132 108 98
-0.0925 0.1677 0.4519 135 113 99
0.0363 0.1687 0.4522 123 103 92
-0.0922 0.1698 0.4516 132 110 96
0.0363 0.1693 0.4518 126 104 93
-0.0924 0.1706 0.4519 126 105 88
0.0365 0.1701 0.4515 128 104 92
0.0372 0.1721 0.4520 131 107 96
-0.0926 0.1730 0.4522 133 112 95
0.0374 0.1733 0.4516 131 107 95
-0.0927 0.1743 0.4523 133 111 97
-0.0922 0.1747 0.4516 127 104 90
0.0378 0.1753 0.4514 134 110 99
-0.0923 0.1765 0.4516 125 104 87
0.0386 0.1772 0.4525 132 110 99
-0.0928 0.1783 0.4518 122 100 86
-0.0925 0.1786 0.4513 119 97 84
-0.0932 0.1799 0.4519 123 101 87
0.0383 0.1796 0.4519 129 109 98
-0.0936 0.1807 0.4523 121 98 88
0.0380 0.1811 0.4515 131 111 100
-0.0932 0.1817 0.4513 122 100 87
0.0386 0.1824 0.4524 131 111 102
-0.0939 0.1833 0.4517 119 96 88
0.0384 0.1833 0.4522 127 109 97
-0.0942 0.1847 0.4515 112 94 80
0.0382 0.1846 0.4519 128 110 98
-0.0946 0.1856 0.4518 113 95 83
0.0385 0.1862 0.4524 131 113 101
-0.0954 0.1883 0.4520 118 95 89
0.0385 0.1881 0.4518 129 111 99
-0.0954 0.1888 0.4517 118 95 89
0.0386 0.1896 0.4517 130 112 101
0.0388 0.1910 0.4523 132 114 102
-0.0958 0.1915 0.4518 108 94 83
0.0386 0.1913 0.4514 130 112 100
-0.0959 0.1929 0.4521 111 94 83
0.0390 0.1937 0.4524 131 113 103
-0.0960 0.1939 0.4519 115 96 82
0.0388 0.1942 0.4517 131 113 103
-0.0964 0.1957 0.4521 120 106 94
0.0387 0.1952 0.4513 127 109 97
-0.0964 0.1967 0.4515 120 104 91
0.0386 0.1973 0.4514 132 115 107
0.0388 0.1981 0.4523 132 115 107
-0.0978 0.1998 0.4521 127 109 99
-0.0974 0.1995 0.4516 127 110 100
-0.0984 0.2008 0.4522 130 117 108
-0.1003 0.2032 0.4522 131 120 111
-0.0999 0.2029 0.4517 143 133 123
-0.0981 0.2052 0.4519 129 114 105
-0.0979 0.2068 0.4523 131 118 107
-0.0970 0.2068 0.4514 128 111 101
0.0354 0.2063 0.4515 132 114 102
-0.0970 0.2081 0.4518 149 139 127
-0.0967 0.2093 0.4518 148 136 122
-0.0959 0.2101 0.4517 127 109 97
-0.0921 0.2171 0.4514 131 112 99
-0.0915 0.2181 0.4518 134 114 98
0.0294 0.2274 0.4517 191 196 189
0.0294 0.2279 0.4520 171 170 161
0.0287 0.2303 0.4517 161 154 143
0.0290 0.2304 0.4523 168 165 156
0.0286 0.2318 0.4521 212 223 215
0.0273 0.2332 0.4522 205 205 198
-0.0803 0.2374 0.4516 140 117 101
-0.0799 0.2394 0.4520 140 124 111
-0.0797 0.2404 0.4522 138 116 102
0.0207 0.2409 0.4518 165 150 141
-0.0507 0.2656 0.4520 180 170 161
-0.0484 0.2674 0.4514 199 201 194
-0.0492 0.2678 0.4523 195 198 191
-0.0487 0.2678 0.4520 200 205 201
-0.0478 0.2689 0.4520 198 214 213
-0.0473 0.2699 0.4523 207 216 215
-0.0470 0.2705 0.4525 214 223 220
-0.0459 0.2708 0.4521 218 230 228
-0.0454 0.2714 0.4514 221 231 230
-0.0458 0.2730 0.4520 218 223 222
-0.1417 -0.0391 0.4526 40 41 35
-0.1405 -0.0389 0.4525 35 38 31
-0.1470 -0.0377 0.4529 71 71 71
-0.1458 -0.0380 0.4534 69 68 68
-0.1405 -0.0386 0.4532 35 36 33
-0.1503 -0.0364 0.4526 98 99 94
-0.1491 -0.0367 0.4536 58 58 58
-0.1479 -0.0375 0.4526 68 69 71
-0.1370 -0.0371 0.4528 29 30 25
-0.1520 -0.0352 0.4529 95 93 94
-0.1359 -0.0357 0.4535 27 30 28
-0.1348 -0.0351 0.4530 34 31 26
-0.1244 -0.0355 0.4531 27 30 28
-0.1232 -0.0356 0.4527 30 31 26
-0.1532 -0.0341 0.4530 55 54 60
-0.1327 -0.0338 0.4532 26 31 27
-0.1281 -0.0340 0.4529 30 31 27
-0.1245 -0.0347 0.4536 25 29 28
-0.1230 -0.0346 0.4532 28 29 31
-0.1215 -0.0338 0.4532 30 30 30
-0.1198 -0.0339 0.4525 21 25 26
-0.1543 -0.0327 0.4535 55 54 59
-0.1321 -0.0335 0.4532 26 31 27
-0.1301 -0.0333 0.4530 24 29 26
-0.1294 -0.0332 0.4531 26 29 27
-0.1272 -0.0333 0.4537 28 33 29
-0.1553 -0.0314 0.4528 66 71 67
-0.1185 -0.0319 0.4534 28 29 33
-0.1169 -0.0314 0.4527 26 27 29
-0.1168 -0.0308 0.4531 36 37 39
-0.1576 -0.0292 0.4533 66 71 67
-0.1568 -0.0300 0.4532 65 67 64
-0.1160 -0.0295 0.4536 29 31 30
-0.1149 -0.0299 0.4526 28 28 28
-0.1660 -0.0276 0.4526 92 92 92
-0.1643 -0.0278 0.4536 96 96 95
-0.1633 -0.0281 0.4530 100 101 103
-0.1618 -0.0284 0.4530 100 103 108
-0.1607 -0.0285 0.4532 75 79 78
-0.1143 -0.0282 0.4533 25 27 26
-0.1136 -0.0286 0.4525 21 27 27
-0.0217 -0.0276 0.4531 51 45 45
0.0246 -0.0278 0.4534 30 30 28
0.0259 -0.0275 0.4528 33 32 30
0.0371 -0.0276 0.4532 28 24 19
0.0381 -0.0277 0.4533 17 21 22
0.0395 -0.0282 0.4526 28 28 30
-0.1140 -0.0275 0.4535 28 30 29
-0.1120 -0.0266 0.4530 24 25 25
-0.0163 -0.0273 0.4534 28 26 29
-0.0156 -0.0272 0.4532 26 24 29
-0.0127 -0.0267 0.4531 29 28 36
-0.0122 -0.0264 0.4537 32 22 31
-0.0111 -0.0266 0.4526 29 23 33
-0.0084 -0.0263 0.4527 33 28 34
0.0086 -0.0273 0.4534 26 24 25
0.0261 -0.0275 0.4528 33 32 30
0.0267 -0.0272 0.4534 22 23 24
0.0320 -0.0269 0.4536 22 22 20
0.0327 -0.0269 0.4535 28 27 32
0.0344 -0.0273 0.4530 31 26 28
-0.1693 -0.0259 0.4528 69 76 69
-0.1107 -0.0254 0.4533 32 31 32
-0.1088 -0.0253 0.4528 35 34 32
-0.1070 -0.0252 0.4526 32 34 33
-0.0897 -0.0251 0.4536 20 24 23
-0.0868 -0.0255 0.4533 28 32 35
-0.0860 -0.0262 0.4530 29 32 37
-0.0845 -0.0257 0.4531 30 30 36
-0.0075 -0.0256 0.4534 21 18 27
-0.0066 -0.0252 0.4526 28 23 27
0.0055 -0.0256 0.4527 32 32 32
0.0065 -0.0261 0.4531 28 28 30
-0.1719 -0.0241 0.4532 61 67 62
-0.1706 -0.0249 0.4530 71 76 70
-0.1104 -0.0249 0.4536 31 33 32
-0.1080 -0.0248 0.4531 29 31 31
-0.1070 -0.0245 0.4533 28 32 30
-0.1058 -0.0239 0.4532 24 25 21
-0.0940 -0.0241 0.4526 28 27 30
-0.0926 -0.0245 0.4534 31 32 34
-0.0918 -0.0247 0.4532 27 25 31
-0.0912 -0.0246 0.4537 29 28 33
-0.0842 -0.0244 0.4534 25 27 31
-0.0821 -0.0243 0.4532 32 32 34
-0.0811 -0.0249 0.4528 26 27 29
-0.0338 -0.0241 0.4526 31 30 35
-0.0266 -0.0248 0.4526 35 31 32
-0.0053 -0.0241 0.4527 29 27 33
0.0037 -0.0243 0.4530 30 31 33
-0.1739 -0.0231 0.4528 50 48 49
-0.1730 -0.0236 0.4527 61 66 60
-0.1053 -0.0235 0.4533 31 33 30
-0.1048 -0.0230 0.4535 25 27 25
-0.0956 -0.0228 0.4535 33 34 38
-0.0945 -0.0234 0.4535 32 33 37
-0.0822 -0.0235 0.4534 34 34 34
-0.0806 -0.0226 0.4525 28 32 33
-0.0348 -0.0228 0.4532 32 34 33
-0.0325 -0.0227 0.4531 22 17 24
-0.0313 -0.0226 0.4525 22 23 28
-0.0261 -0.0237 0.4532 36 34 37
-0.0048 -0.0230 0.4532 32 28 34
0.0015 -0.0230 0.4527 40 39 44
-0.1766 -0.0217 0.4526 35 35 27
-0.1018 -0.0224 0.4526 22 27 31
-0.1001 -0.0219 0.4528 27 25 30
-0.0998 -0.0219 0.4526 32 30 35
-0.0820 -0.0220 0.4535 34 30 31
-0.0811 -0.0221 0.4527 31 35 36
-0.0344 -0.0220 0.4535 30 31 32
-0.0329 -0.0222 0.4531 23 21 27
-0.0043 -0.0224 0.4532 22 20 25
-0.0034 -0.0217 0.4534 27 25 30
0.0004 -0.0218 0.4535 26 27 29
0.0023 -0.0224 0.4534 23 26 31
0.1355 -0.0219 0.4536 71 68 62
0.1457 -0.0221 0.4534 89 83 86
0.1479 -0.0217 0.4533 47 48 46
-0.1802 -0.0206 0.4529 60 60 60
-0.1795 -0.0209 0.4528 58 54 53
-0.1785 -0.0208 0.4537 42 39 34
-0.0814 -0.0205 0.4535 42 40 43
-0.0359 -0.0208 0.4528 27 27 29
-0.0254 -0.0205 0.4530 39 35 34
0.1495 -0.0212 0.4532 51 47 44
-0.0808 -0.0193 0.4532 29 29 29
-0.0408 -0.0193 0.4527 29 31 30
-0.0399 -0.0188 0.4533 31 31 31
-0.0379 -0.0196 0.4529 30 30 35
-0.0370 -0.0199 0.4526 27 25 26
-0.0254 -0.0197 0.4528 42 38 37
0.1291 -0.0188 0.4528 55 54 52
-0.0809 -0.0187 0.4534 27 31 30
-0.0434 -0.0182 0.4529 28 30 29
-0.0412 -0.0182 0.4535 23 21 24
-0.0383 -0.0183 0.4537 24 24 28
-0.0373 -0.0183 0.4535 26 27 31
-0.0251 -0.0182 0.4535 37 35 37
0.1271 -0.0177 0.4529 52 52 48
0.1285 -0.0184 0.4530 48 48 43
-0.1822 -0.0165 0.4534 72 72 72
-0.0809 -0.0170 0.4535 27 28 32
-0.0448 -0.0170 0.4533 25 27 29
-0.0353 -0.0169 0.4526 22 21 26
-0.0349 -0.0165 0.4525 32 29 36
-0.0264 -0.0163 0.4527 37 37 35
-0.0256 -0.0171 0.4536 36 35 37
-0.1828 -0.0158 0.4526 79 79 79
-0.0797 -0.0157 0.4528 31 32 31
-0.0455 -0.0160 0.4534 27 27 29
-0.0356 -0.0162 0.4534 27 27 29
-0.0267 -0.0155 0.4531 32 32 34
-0.0261 -0.0161 0.4536 29 29 31
0.1255 -0.0158 0.4530 56 58 55
-0.0795 -0.0147 0.4537 33 31 34
-0.0787 -0.0147 0.4529 21 23 22
-0.0469 -0.0144 0.4533 30 29 35
-0.0342 -0.0144 0.4537 26 26 26
-0.0333 -0.0147 0.4530 30 28 31
-0.0320 -0.0139 0.4525 31 28 37
-0.1839 -0.0126 0.4529 83 85 82
-0.1837 -0.0130 0.4530 83 85 82
-0.0772 -0.0132 0.4530 22 25 26
-0.0331 -0.0136 0.4537 35 33 34
-0.0316 -0.0137 0.4527 27 29 28
-0.0302 -0.0136 0.4525 39 33 35
0.0553 -0.0137 0.4525 15 23 25
0.1242 -0.0128 0.4527 50 48 44
-0.1845 -0.0113 0.4528 89 91 88
-0.0483 -0.0116 0.4537 21 25 26
0.1229 -0.0113 0.4529 50 44 44
-0.1851 -0.0103 0.4528 89 94 88
-0.0755 -0.0106 0.4531 31 32 36
-0.0738 -0.0105 0.4528 27 28 32
-0.0731 -0.0102 0.4528 22 23 28
-0.0493 -0.0102 0.4533 25 24 32
-0.0470 -0.0102 0.4536 28 27 33
-0.0443 -0.0103 0.4532 23 24 27
-0.0419 -0.0107 0.4530 28 27 35
-0.0407 -0.0101 0.4526 30 24 36
-0.0385 -0.0100 0.4536 21 19 30
0.1212 -0.0103 0.4533 57 49 47
0.1230 -0.0110 0.4537 54 45 46
-0.0759 -0.0099 0.4536 26 30 31
-0.0732 -0.0092 0.4526 29 28 33
-0.0513 -0.0100 0.4526 26 30 33
-0.0489 -0.0099 0.4534 27 26 32
-0.0485 -0.0095 0.4534 27 26 30
-0.0461 -0.0091 0.4528 19 23 25
0.0625 -0.0092 0.4534 32 32 30
0.1182 -0.0091 0.4529 45 45 43
0.1191 -0.0096 0.4527 49 49 47
-0.0739 -0.0076 0.4529 26 25 31
-0.0504 -0.0081 0.4525 24 19 26
-0.0485 -0.0082 0.4529 24 24 28
-0.0475 -0.0081 0.4526 33 35 34
-0.0372 -0.0076 0.4537 35 25 34
0.0653 -0.0085 0.4532 23 25 22
0.0672 -0.0081 0.4530 31 33 32
0.0686 -0.0079 0.4526 34 35 39
0.0692 -0.0078 0.4527 28 29 31
0.1168 -0.0085 0.4529 47 47 42
-0.0740 -0.0070 0.4531 29 27 30
-0.0736 -0.0063 0.4529 25 24 29
0.0730 -0.0071 0.4530 27 31 29
0.0748 -0.0069 0.4534 27 32 32
0.0753 -0.0068 0.4536 37 38 40
0.0796 -0.0066 0.4534 32 32 30
0.0810 -0.0065 0.4535 31 33 32
0.1132 -0.0069 0.4536 59 56 51
-0.0733 -0.0059 0.4528 26 25 30
0.0835 -0.0062 0.4530 24 27 20
0.0841 -0.0059 0.4534 21 24 17
0.1071 -0.0050 0.4532 77 76 71
0.1087 -0.0055 0.4533 60 55 52
-0.0733 -0.0044 0.4534 35 33 36
-0.0367 -0.0045 0.4531 42 36 38
0.0873 -0.0049 0.4533 27 29 28
0.0879 -0.0046 0.4535 19 25 21
0.0894 -0.0043 0.4533 34 30 32
0.0906 -0.0043 0.4529 39 32 39
0.0919 -0.0044 0.4530 35 33 37
0.0946 -0.0041 0.4531 45 44 46
0.0959 -0.0040 0.4532 80 74 78
0.0972 -0.0039 0.4532 58 59 61
0.0991 -0.0039 0.4527 46 43 50
0.1002 -0.0040 0.4527 51 53 56
0.1018 -0.0041 0.4533 32 37 33
0.1037 -0.0043 0.4536 85 81 80
0.1059 -0.0045 0.4536 60 65 59
0.1070 -0.0048 0.4536 71 70 65
-0.0715 -0.0027 0.4531 24 25 29
-0.0707 -0.0032 0.4526 29 29 31
-0.0660 -0.0026 0.4528 29 27 32
-0.0368 -0.0031 0.4529 24 22 31
